# 3D point list with one line of data per point:
#   POINT3D_ID, X, Y, Z, R, G, B, ERROR, TRACK[] as (IMAGE_ID, POINT2D_IDX)
# Number of points: 414, mean track length: 3.037568199532346
1371 2.0922887032695878 -3.6715956825465299 10.314719495550445 122 133 105 1.1927954451112985 10 5877 14 9460 5 6230
714 -0.2674447600171086 4.4345420739762043 0.098831868221638031 156 157 138 1.789090697072671 10 1528 14 2038 5 2227 7 3957
715 -0.18280201074051122 4.4454618197176146 0.04009958781580876 185 182 165 1.1864575411415081 14 5004 5 2232 7 3941
3113 -3.6099189806351046 8.4769370505997941 -5.9686599876666486 101 105 78 0.32707899177383937 11 6098 2 8154 12 8970
3928 -3.4605933175301895 4.8996279564394039 -1.0435508373325224 177 165 149 0.50142252692045208 17 2815 21 1924 19 2458
2083 4.3142885157147646 2.3471787955771237 3.3107145271827245 195 193 193 1.7651764951623548 13 9785 15 11717 4 6910
717 -0.56114053760495919 4.4418747627553179 0.056728637905177633 62 59 55 2.3615416758754035 10 1510 14 2049 5 2269 7 1123
3922 -5.8514047075930966 5.7172907721039179 -2.464690256359698 188 191 141 0.62531289280259827 17 2677 21 1841 19 2382
1884 7.1452013195907762 0.12698514208466502 7.0629859891540026 98 105 76 0.68293902398862194 1 3563 13 2649 15 1476
1069 6.1614923293901835 -3.8440173530327755 11.7312727960405 183 183 145 1.8068795490881302 10 2783 5 4455 1 2736
719 -1.2815565294504663 -2.3578705953390289 7.7565042446618575 134 151 109 1.7800126875259916 14 1868 5 2312 7 2143
2103 0.094872479653207026 3.7196163051692661 1.0746002077849004 84 74 73 1.2690828617084065 15 521 4 521
1958 4.6890746304100936 2.1306676974926186 3.2948722838556654 173 155 151 0.54396294704207371 13 342 15 290 6 385
721 -1.127044417477028 -2.2184789250925219 7.6134474830172945 154 162 125 0.92517989466102135 14 2549 5 2316 7 2148
6192 -4.438556158388832 -0.030349392821954025 4.3385875615924503 186 185 192 0.7855580069225675 22 3703 24 3635 23 7769
1443 -0.24876422900664033 -4.7229679877549682 10.671073769380182 99 103 86 0.37108842399129416 14 4215 5 6438 7 8456
722 6.7793533850537981 -3.2951100816394772 11.366374895741092 119 139 88 1.300124759489222 10 2330 5 2326 1 2356 13 2151
723 2.4399367949568416 -2.7263950314331953 9.474854685733554 168 171 153 1.3022665902572317 10 2347 14 2109 5 2327 7 2789 1 1489
6187 -4.8748465907115817 -0.31994945824097454 4.589568541891297 72 73 68 0.5467303111329086 22 3011 24 3603 23 7837
725 4.65969895054684 -2.7216811039243254 10.018840729294405 136 159 105 1.4476108930738061 10 2836 14 2189 5 2332
2100 6.5989178248025349 3.5818492762700123 1.9924513153156931 197 204 220 0.69093025646160333 15 453 6 406 4 299
726 -1.8410010108692547 -1.7983000697982201 7.1015802679538123 83 83 77 0.9317622671913991 14 7549 5 2341 7 2757
3495 1.3045995814645286 3.151800752139168 2.0360385649811743 108 107 107 1.876871579256709 12 842 17 756 21 557
1956 5.2298483437980989 2.0574975700512734 3.0228190872504164 183 165 161 0.060353931326636107 13 336 15 281
1077 -1.6154736794667703 -2.3692468470626795 7.7382254642846258 154 165 151 0.39101363316754473 14 7624 5 4471 7 6553
727 4.0013483598716242 -2.4861319935303765 9.6359461226099334 99 119 91 0.4295392521321218 10 1369 5 2342 1 2390
6207 1.5387033646331238 3.4209324374716363 1.7280214231860529 53 55 42 0.84687353711556745 22 4332 24 3852 23 6218
1966 0.32972200376448368 3.6110404479808254 1.2165700559596684 176 160 163 0.54260165056712883 13 481 15 509 6 1220
729 1.8231763544870465 -2.1028711246411484 8.712357377062057 144 136 123 0.81000277922819341 10 2372 14 2192 5 2348 7 1951
2104 -1.1254206391294157 2.1663403244529968 2.7841805436820684 28 29 24 0.75482970390899273 15 824 6 497
1451 -0.35288042935778019 -4.6659718836112809 10.430987349558666 147 150 129 0.31191826961038127 14 4231 5 6464
730 3.0411957601994306 -2.0752484405639873 8.9396809220550679 134 146 122 1.849304728819174 10 1350 14 2639 5 2349 7 2867
731 4.244657537579589 -2.112031856151289 9.2133337230615648 101 128 77 1.4427709917139389 10 2870 14 2201 5 2350 1 6856
3129 -2.3138429261854419 9.1888275804264836 -6.7594367334011247 95 100 80 1.9561197496264668 11 10504 2 8457 12 11058
4008 1.4859509532588648 2.7616344292535429 2.484263840309298 109 134 96 1.4047912520715398 17 4463 21 3950 19 4208
2099 5.749527275415975 3.0949085385363166 2.5565092519848904 183 174 177 1.3687378880986953 6 391 4 295
733 2.0252443401559979 -1.8772554542171258 8.41978360204015 154 158 133 0.54366829207234069 10 2379 14 2199 5 2355 7 2204
4002 1.822233505079577 2.8575409523887356 2.3603058626268072 148 171 145 0.67904655031861949 17 7366 21 3811 19 4512
734 5.0144295674933099 -2.0880660797847397 9.4892969140999774 136 157 116 1.6481222436079692 10 3280 5 2360 1 2404
1964 5.0968109691503622 2.1264564148749248 2.9853206524843414 199 189 188 2.1275470149884228 13 718 15 471
1085 -0.47869634887734319 3.6014792224978769 1.1042134620683053 175 177 159 0.52211375953805139 10 7547 14 6182 5 4518 7 11793 1 8201
735 0.47357048790621969 -5.726005264550782 11.852658965649676 147 131 106 0.20535482027813012 14 4301 7 8296
1910 10.044558651370238 -0.88039708874529776 8.6998042241377789 106 117 83 0.26442129054755764 1 6841 13 7226 15 11023
737 2.3126264470405955 -1.6624595662785087 8.3077668199198325 84 87 73 0.39711907774133165 14 2212 5 2370 7 2222
1395 2.0017500513597617 -4.1201983978645735 10.739094007191415 149 152 138 0.37665691931779338 14 9348 5 6300 7 6612
738 1.8201563595293078 -1.5698425315188318 7.9853454259613734 152 157 134 0.85249096757474629 10 2395 5 2371
739 4.5026706056740666 -1.746115374247966 8.912382506987111 142 161 129 1.5349322479620422 10 3297 5 2372 1 2885
741 3.0376344240126008 -1.4581146952622941 8.2722895111524277 141 146 116 0.76780350453916757 14 2224 7 2007
742 1.5064634841164986 -6.0213963148223728 12.553982005406789 158 163 143 1.5041480986723086 14 1619 5 2383 7 2560
1908 11.26739276442739 -1.4895633746302279 9.7353686632188161 103 110 77 1.0822563959688944 1 6759 13 7146 15 2775
743 0.21863198472950279 -2.9786958020874428 9.0231049945442532 149 153 136 1.0541109097173997 10 1389 14 1423 5 2385
1918 6.7763226831272334 0.36897573990365251 6.613287148072847 147 155 122 0.24917385242296808 1 7099 13 7528 15 6711
745 0.96391177183198762 -6.0687860877792783 12.617313136597238 168 179 162 0.47964150603912636 14 1372 5 2387 7 796
1403 4.0312138356643183 -4.6759559088384481 11.907849636077112 168 179 142 0.50587275738611959 10 10151 14 7701 5 6320
746 2.2115746522171018 -1.3262845192867685 7.9283007073237215 161 160 142 1.6443488753488877 10 6124 14 2223 5 2389 7 1334
747 0.93846175456669856 -1.2117673378130467 7.4063560679438352 143 166 137 0.19477838744374698 14 2219 5 2391 7 2230
3960 -5.4471012432295405 5.5105188654899981 -2.009400290237715 157 181 123 1.6995594464735269 17 3285 19 8208
750 2.2725628638553794 -6.3721412063690215 13.398394632522125 141 137 123 1.1752657493865792 5 2404 7 6858
1916 7.1692064979693706 -0.6255125826184631 8.1523327329177722 168 162 136 1.2158690921337973 1 2920 13 7416 15 2966
751 0.84452467954776989 -5.6644457523111402 12.04228153022548 80 83 76 0.84416052991392287 14 1377 5 2405 7 1372
1862 8.1303648608577728 -0.85140651485347818 8.5003146763425672 73 80 49 0.33059415187380542 1 2421 13 2189 15 1502
753 2.9404825252599047 -1.0404901743552364 7.7537447448230497 173 168 138 2.0265988448331607 10 2967 14 7296 5 2411 7 3988 1 2956
1347 -0.033851082980934241 -2.6564522867375557 8.4452893012631112 110 125 96 0.97709413431889969 10 2823 5 6151 7 9017
754 0.89796689970647114 -2.142210552575265 8.4188542751770576 116 117 104 0.72034497701929756 10 2367 14 2181 5 2412 7 1054
755 -0.48882150990321915 4.2559285632465613 0.30248402506248645 70 61 52 1.3566587831083687 14 3511 5 2415 7 3672
757 3.5489077015872055 -0.97591248226146576 7.7329720425759225 148 150 128 0.69357792543907448 10 2960 14 3864 5 2418
758 2.125494110984425 -0.92969633765858217 7.4647615268703591 95 102 84 1.3616151971451151 14 957 5 2421 7 882
3399 1.0989372522206524 3.5131630036612047 1.4892490116809587 157 163 153 0.97463989257196537 2 6553 12 7210 17 1910
1860 10.60236346311981 -1.4961992963771227 9.6729857427492156 153 162 129 1.0150226862522906 1 2378 13 2152 15 2790
759 -1.6250385770830666 -4.8086772948921128 10.297315239989157 104 104 96 1.1873138898514426 14 1615 5 2423 7 2540
1870 11.748723397648135 -1.5684341089099034 9.8925171227993633 146 155 124 0.55680148631874105 1 2783 13 2476 15 2761
761 3.0986471434347855 -1.0006189853183087 7.8817580725283189 94 91 74 2.24479835395171 10 2976 14 2254 5 2427 7 1352 1 7075 13 7632
1355 3.6456454257475279 -3.5932388908135753 10.778874471426153 68 87 65 1.9106294283882843 10 9950 5 6180 7 9179
762 1.264810720562088 -0.82946844670883801 7.1500043493248224 98 125 96 0.83043025002733717 14 2693 5 2430 7 6107
763 4.4833845529460312 -6.5808076442958008 14.131573568024919 155 168 138 1.6723201069881235 14 1243 5 2431 7 985
3912 0.64742650081288411 3.6100026931547839 1.3094958757036788 62 48 48 1.9042986398136614 17 4854 21 1715
765 2.3886724971256172 -0.50416806401665681 7.1712577623075058 144 141 136 0.42455986367492465 14 2281 5 2449 7 2268
3906 1.8277506260831657 3.1024547857898392 2.2164284452121956 46 48 45 0.22215623132843537 21 1588 19 1216
766 4.3298107921427702 -0.20575565221220876 6.8766407162629726 127 142 99 1.7000713585067269 10 1292 5 2451 1 2470
1868 11.426972943111526 -2.2482003538263249 10.834625782610837 123 124 90 1.190959783611613 1 2769 13 2461 15 2311
767 2.4732208587188214 -5.6041970670891663 12.491223655649215 173 172 152 0.25948969982410497 14 1998 5 2460 7 2093
768 -0.24563105099266364 1.3419467128367588 0.91860778339472515 132 97 95 1.2443059182624223 14 1493 5 2467 7 892
770 2.5175227348808247 0.16301064464229267 6.25044627903657 152 177 138 0.53578334559491603 10 2486 14 2775 5 2471 7 3031
3773 -6.6097774577123598 8.5004405022056595 -6.4625595920555972 84 88 73 0.53432358073834152 2 3294 12 2976 17 8885
1202 -0.52613512914030403 1.8406802861398692 1.5621842517281175 73 93 181 0.44632661262362361 14 6927 5 5326 7 5678
771 -1.0663501608685313 -4.4595346595858647 10.047366975895796 114 125 101 0.3922942141158105 14 3963 5 2473 7 6855
1719 0.5184546994324406 3.7652726109201105 1.1119611213405409 203 176 183 1.2688608843574611 10 1030 1 1226 13 1585 15 4109 6 4881 4 7692
772 -0.2162645024707123 1.3333319630837406 1.0257003220079859 210 175 169 0.10473883673035037 14 1497 5 2474
1713 0.22145596499039574 3.5372845245033324 1.3042010339819134 177 147 139 1.6884586191319149 10 558 1 515 13 243 15 511
774 2.1898641226229514 -5.2897817560713349 12.015892010963936 112 114 100 0.83442278537887249 14 2178 5 2486 7 2095
775 1.8587121762977659 0.40550474220182126 5.7989213356901415 136 144 127 1.4000491407173621 14 2792 5 2487 7 3046
3254 -4.9941051649837691 7.8926423495739391 -5.4049759121344954 153 160 127 1.2299119670569856 2 2685 12 2481 17 2628
776 2.5301226815472324 1.0436405318565529 5.1137334735062305 96 102 81 0.32444608649339179 14 2366 5 2512 7 2343
3771 0.30933497413459504 3.2044154249401688 1.8147228128041422 110 110 113 0.72253984780900316 12 7198 17 8774 21 5225 19 7170
778 1.3394541479036466 1.061576240353491 4.9373820731020439 98 105 87 0.33301138594537955 14 2364 5 2521 7 2335
1210 2.8466550594749687 1.1872493703039126 5.0105520216707147 141 137 125 0.25337870020025471 10 2897 14 6962 5 5437
779 -0.83183198192190078 1.5878159122139617 1.1194560280359276 97 127 209 1.0891115811360323 10 2597 14 2805 5 2522
1727 8.2187207660302661 -1.8984783576729913 10.081817623816391 166 166 140 1.1635255926446564 10 1348 1 1486 13 1432
780 1.4863442014692043 1.4571076439512374 4.2557502692160547 146 159 137 1.2565606798729083 14 2389 5 2545 7 2362
1721 1.9013531964278705 2.9269179859834948 2.0009421525872253 34 34 34 1.5369286406711737 10 954 1 1317 13 2874
782 -0.53509030136572699 1.8227519745185272 1.5599229549019846 180 203 235 0.58243181701086777 14 2385 5 2561 7 2341
783 2.0273270746661214 1.8944299239035998 3.7839239727088159 140 165 107 1.9054706717074918 14 2417 5 2569 7 3178
784 -0.13554533518492767 -2.6346393051143644 8.5017690896179055 156 163 132 0.77982270091917505 10 2833 14 2547 5 2572 7 2730
786 4.0616507592965041 -5.0495355468991052 12.342829236266418 199 194 164 0.67690105241655896 10 2258 14 2489 5 2580 7 2669 1 2672
3725 -2.0761844197424217 4.7363507770595907 -0.61106404956797644 77 67 55 1.4088875252720923 12 12257 17 5930 21 5716
1154 -0.5373285531834866 2.8499891887088626 1.6093829116474387 36 35 41 2.6561323117406759 10 7173 5 5040 7 11213
787 7.5127072869266218 -5.7475555384952157 14.091124739771223 211 195 146 0.47081616260504094 10 2720 5 2583 1 2646
1671 -0.4171253912548939 1.2059233745762645 0.82058380995025482 122 113 118 0.22175408421475262 5 67 7 53
788 0.60090147255226267 -4.3687636422263658 10.736512272054147 171 163 152 1.0994863228635772 10 2745 14 4000 5 2584 7 2109
1665 2.9419906828330094 -2.035787561192349 8.8720910963518911 146 168 132 1.1258123239455997 5 5973 14 9905 7 9597
790 -1.0147540981536778 -3.7999868594486568 9.4805473527842725 78 87 70 0.71806453039164098 14 2324 5 2587 7 2100
791 3.3023175751603038 -4.6423805654203019 11.642378691912349 127 129 106 0.34959937057786594 14 2493 5 2589 7 2673
3206 0.74187054039592726 3.8639680716384999 1.0709999851532215 120 115 112 1.7303128196257025 2 3023 17 1122
792 6.7584744866572866 -5.2940483518651336 13.309792035328764 235 209 148 1.5863040961489632 5 2590 1 6495
3723 -2.0923021286246786 5.0193771255525954 -0.96157625795457291 150 142 129 0.66793589620161498 12 12201 17 5891 21 2879
794 -1.1082560619920685 -3.66739132569433 9.2993157393236121 61 67 53 0.39302882908513198 14 3995 5 2595 7 2630
1162 0.92436581062891077 2.9710456058924906 2.2221029221379585 86 96 87 1.9085465648230275 10 7087 14 11530 7 3289
795 8.1596165089179173 -5.4661291665217133 13.976867978840883 138 152 96 2.1774733143591045 10 2262 5 2601 1 2292
1679 -0.31345046086413947 2.7912254310311626 1.1876259725542935 162 174 216 0.69144755335834196 5 1170 7 634
796 0.091073586635779663 -3.8399760827299367 9.9428244902797474 114 113 109 0.14888981832358694 14 7738 5 2604 7 6664
1673 2.0217951465643713 2.7989091282572023 2.6792597427732709 181 182 187 2.4674050405068928 14 71 7 93
798 2.9047179970382477 -4.4948976351710135 11.625872614859436 177 175 163 0.19977922750989224 10 2280 5 2606
799 1.5757076307403952 -3.9191246631646823 10.310427949681587 154 152 137 1.5766584668841517 14 9344 5 2607 7 8834
800 -0.94626429877172868 -3.3134253054217284 8.8362183640262497 102 114 90 0.70859783149997113 14 7744 5 2609 7 2651
802 1.7346999863525547 -3.9096568994900931 10.381908981167777 167 166 148 0.60227769052677027 14 2504 5 2612 7 2128
3532 -0.49788331752071568 2.3658806354885042 2.672969008429503 95 99 92 1.7244985731714104 2 555 17 1476 21 1200
3677 -6.573808196358299 7.4061136216474743 -4.865043601641089 136 124 111 1.1029733534670947 12 11020 17 5135 21 6398
1106 -1.2340063764467832 3.2814652198494376 1.2852271834584448 192 186 172 1.217721800046766 14 6386 5 4708 7 3338
803 6.2723629810896453 -4.8167734974034895 12.73181747742443 174 171 140 0.4049674606741232 10 2751 5 2613 1 2304
1623 0.25925402303745387 2.9622580460799939 1.2647257658691626 116 105 110 0.55632112720234295 10 1104 7 11348
804 8.6930441120298934 -5.2654890040826894 13.922948905829648 75 82 49 0.71894709967914461 10 2742 5 2614 1 2296
2502 3.8129929487344132 7.6843997676685012 -4.0436664846228281 94 95 75 1.3966029376777851 8 663 16 1601 3 1652
1617 3.5160351161571692 -1.8796713266913025 8.8371214796006345 138 162 114 0.95647667740435782 10 656 5 663 1 663
1472 -0.43358161687376767 -5.5253438751769259 11.411544552537579 100 99 78 0.69292541452794731 14 8797 5 6550 7 8255
806 -1.2054562986939963 -3.0637519628429017 8.5256288230899848 158 159 153 0.78659306214618863 14 2497 5 2622 7 2662
807 2.0459666886593877 -3.7836901277511656 10.420817930170507 108 116 92 1.0918277451126699 10 2771 14 2519 5 2624 7 2701
3158 0.57197613264433178 2.3510929944306831 2.8307616932995114 0 0 0 0.23848314222543376 3 1181 16 1250
808 4.4093045183990416 -4.1402124865526515 11.485851567273809 181 183 169 0.95861487133532064 14 2534 5 2625 1 6308
2506 0.54674272400794144 2.3319294454345645 2.3987757893131914 204 209 255 0.64535465450522322 8 4934 11 1816 16 1969
3675 -7.2994172298460045 7.0384893113543381 -4.4622753597494196 90 87 70 0.75953703497721892 12 11029 17 5118 21 6435
810 4.5740669860494965 -4.0348467400658485 11.454806404530759 83 91 70 0.61542092559818851 10 2772 5 2631 1 2720
6613 -10.531068154904816 2.3429359966278804 0.41781765010427252 151 144 111 0.65616869074561057 18 5396 24 9039
1114 -0.4728016776261279 3.3197362535800856 1.4726971647589613 180 176 173 1.5550584623793782 14 6382 5 4788 7 3361
811 3.556273229914737 -3.8275260989185593 10.933646329452301 108 124 98 1.4977765286074824 10 5878 14 2537 5 2633 7 2739
6606 -1.7360894585396518 1.7890008162506783 3.2107003732516244 163 170 163 0.81668070385779468 22 5413 24 5666 23 7189
1631 1.0738238656121688 -1.4800311017821515 7.6749477315772463 178 181 160 0.50983862641383226 5 1533 14 1461 7 1308
812 -1.425253813320664 -2.8785671893372253 8.3691503532964724 149 157 142 0.69814855398659625 14 7706 5 2636 7 6621
1625 0.83297959256800891 3.9939669287856443 0.80033199574647251 196 188 175 1.8481754958012471 14 12893 5 8291
1480 -0.061354360383853494 4.5551672510376298 -0.020710835553756045 52 43 27 0.45981103177372146 14 14927 5 6743
814 1.5356174473495685 -3.296809725897226 9.7316414808889835 154 160 132 0.64374030430382989 10 2316 14 7626 5 2643 7 6519
815 4.8789084933716254 -3.8040272246644555 11.269863812405976 154 162 125 1.1065307989847362 10 2304 14 2559 5 2645 1 2339
6610 0.27521342672679111 3.1728401380305802 1.334039367091558 145 128 139 0.77012274290598881 18 4073 24 6197 23 6745
816 5.2820724873044487 -3.8652368491932139 11.501549285698211 123 130 98 0.56222641062325995 10 2307 14 2565 5 2646 1 2735
818 1.9442731667870758 -3.2160531552885052 9.8685953807645888 100 102 87 0.63532311594888369 5 2653 7 2750
3548 -0.28987389002031311 0.9969946029365292 0.94791294591301278 139 134 136 0.71332458015262878 12 3156 21 699
1186 -1.3516736175296558 2.2900758655650368 1.812425216804624 93 121 195 2.0441756012799965 10 11789 14 6799 7 10906
819 4.2020987274752333 -3.4290397449380596 10.677267477349018 150 171 132 0.50596724622590183 10 2320 5 2655 1 2352
2525 2.7935348859586711 5.5143891018205302 -1.138400875873391 67 75 52 1.0998341093808903 8 2667 16 3403 3 3549
1703 5.2873464954895368 -1.7225743593231981 9.0795947964134402 112 122 85 2.1193420501590876 10 306 1 421 13 587
820 6.0883430724474055 -3.7276975139649267 11.626421312291907 139 139 101 1.2475834297871968 10 2791 5 2657 1 2743
2518 3.9651967980142584 7.5655490713713052 -3.9006935034471533 109 116 83 0.44287738558582296 8 2507 16 3076 3 3250
1697 1.8773065302084706 2.9697848152336594 2.0624151031075297 55 53 59 0.69084893353210364 10 121 1 119 13 91
1488 -0.98089658708705696 4.3447680413036531 0.13861328108033538 58 54 41 1.1080627045348261 10 3509 14 5174 5 6931
822 7.6796035790542705 -3.714183404128284 12.021718454245432 150 161 104 1.1348410550513877 5 2667 13 7093
823 -0.043268708911294224 -2.5512260029765432 8.4550636380342716 112 116 101 0.96105851418055988 10 2349 7 6487
2513 3.1636786497451603 6.4598368241095576 -2.3420132778911626 94 86 75 1.2887958402858584 8 2393 16 2576 3 1590
3238 -4.8893352223476114 7.176118613160936 -4.4105055132385855 181 177 130 1.1463481680973073 2 1657 12 1563 17 1716
824 -1.4917952500635001 -2.2189039817052181 7.6128265482191813 131 141 122 1.3166830925450608 14 2548 5 2678 7 2728
2522 2.620174540048319 6.837884571618952 -2.9755477506679089 208 213 193 0.1859597094541755 8 2597 16 3226 3 3357
3755 1.2935503428810502 3.3005217752154361 1.7900457743173892 121 136 105 1.873517268478293 17 6816 21 3296 20 4073 19 3990
826 2.6458050663378887 -2.8783686192281968 9.7054539116015786 163 154 144 0.99274714692614863 10 5940 14 2583 5 2681 7 6391
1194 0.51788330899532242 2.3075980580203743 1.1630275365826845 186 149 134 1.7392478189038487 10 6924 5 5240 7 5164
827 2.5868970956148982 -2.855752719376639 9.6965179471655265 126 122 110 0.76706737438411332 10 4360 14 7532 5 2684
1711 -0.27659951378742459 2.8022156143974382 1.4600762155616649 163 174 222 1.7109673766300026 10 788 1 499 13 407
828 4.3858821907095455 -2.8812671056779608 10.075732797408124 146 168 121 1.4716834869763811 10 2827 14 4018 5 2687 1 4359
1705 3.3625544595000205 -1.2091642694009272 8.2317421372235184 143 148 128 1.3285630971824933 5 286 1 430
1496 -1.1799325413885033 4.292812963718629 0.18715316461542292 166 177 160 1.6125511660827561 10 3523 5 7005 1 3642
830 1.3875319927547565 -2.335595944431184 8.6038253685626636 161 165 151 2.1427880001884376 10 5978 14 7521 5 2699 7 6385
6617 -3.5740017625053055 0.4602302315720937 4.0362581480563655 124 132 120 0.6894017845502135 24 69 23 56
831 2.8274083265758065 -2.5898246855754223 9.4645512496598521 162 168 146 1.3014756199229245 10 5963 14 2599 5 2700 7 6336 1 6825
832 2.2820788450493374 -2.4708158289838029 9.0897212854242735 108 111 92 1.1380472649112807 10 5968 7 6356 1 6842
834 -0.26146765111354969 -2.0822593720132678 7.9336061187981866 103 103 95 0.72959258192161902 14 2586 5 2705 7 6417
3837 1.8153271767325359 2.8361149141554294 2.3882384994888683 55 61 47 0.76037034212324284 17 806 20 513
1266 2.0102304812725458 -0.92447259349025657 7.3843521894458286 159 164 139 2.2968269392959737 14 10158 5 5804 7 9882
835 2.7894940709144649 -2.5064833673087392 9.4047766860348467 103 111 88 1.2832525910562476 10 2851 5 2706 1 2847
1783 -0.88085486438740324 4.3060647138182544 0.14379553681452428 49 47 34 0.59468065386067215 10 5359 1 5646
836 1.451429948815445 -2.2405161533387994 8.5762213647261447 88 91 70 1.6536332183513285 10 2861 14 2596 5 2708
1777 -0.88745836456058458 2.9116962369438051 1.7803263310397279 34 36 35 0.52653036578842027 10 1742 13 4743
838 1.9437007023764086 -2.3146934696227337 8.8978700052160065 100 98 83 0.66590153475734226 10 2862 14 2606 5 2711 7 2815
839 4.3279512689801658 -2.4693359624456241 9.5992398488149853 139 168 115 1.762586125831497 5 2712 1 6797
3318 0.17987007722572568 4.6079556717422019 -0.21561396346658981 170 175 143 1.9078391977789459 2 6252 12 3383 17 5042
840 1.8620693894922105 -2.3004645390234608 8.925678372650852 155 148 132 1.2491973761158743 14 7485 5 2714 7 9421
3835 1.3071900543449946 3.3094128965285043 1.8096373226667652 79 79 81 0.38224174438990066 17 745 21 548
842 1.6932274384291799 -2.1973215929738181 8.7201205468317493 169 161 150 1.6192008839435967 10 2872 5 2721 1 6895
1274 2.164130322754378 -1.1428598684420574 7.7470176325379487 132 132 116 0.42863458928351544 14 7323 5 5840 7 6126
843 4.793464093243192 -2.5067198693415085 9.9654577722137283 151 176 119 0.81433649663310481 10 1366 5 2723 1 3487
1791 3.7522352787555149 -2.533788568130968 9.6324690235535773 102 106 85 0.58590616845684007 5 2709 1 6818
844 5.7696088932676401 -2.5042571453850853 10.151469293624427 153 163 128 1.482469192417557 5 2725 1 6791
1785 3.6340209083155171 -4.6465388529419114 11.681877407812118 127 132 102 1.3644691594320648 5 6337 10 10148 1 6541
846 6.2392612918978934 -2.4927503196578953 10.370609230903362 92 95 66 1.2267805092933628 10 2853 5 2727 1 3479
847 -0.037609916222280104 -1.8115165597457565 7.7189092541258342 175 171 159 0.6534872965777182 10 2383 14 3861 5 2728
1059 2.2485426502943842 1.6344838166891047 4.1173928732732188 178 201 159 0.91787317847431016 14 11000 5 4373 7 10827
850 -0.075400990040461829 -1.681282618948561 7.4984529213527447 129 126 118 0.60036924114064794 14 2190 5 2734 7 2186
3789 -0.40831660280217313 2.3192816202357416 1.322302069039325 120 109 113 0.42674658031252832 12 3410 17 2948
1218 1.1452427198334538 0.92029285182678033 5.0176432206588073 160 159 139 0.23013953845639593 14 2838 5 5466 7 3089
851 1.763548627036245 -1.9377741545595235 8.439633500176738 141 145 126 0.72330802172653796 10 2892 14 2632 5 2735 7 2844
1729 8.845470235566415 -2.9886734438034326 11.52300642503384 122 129 88 1.5917960751101343 10 1383 1 1504 13 1455
854 3.8024021425871717 -1.9119377855775264 8.8243468124611422 88 102 71 2.3688687364158274 10 2371 14 2658 5 2743 1 1476
3111 0.41549321143160378 1.8498435530480055 3.4652777198324238 157 167 195 1.2887329220202419 11 4235 2 7645 12 4064
1572 -0.085278653258691994 4.0519217726294023 0.58273552258785399 154 164 143 0.63862807786802422 10 4551 5 7964 1 4677
855 -0.46417730814099173 -1.4633675023609964 7.1449242075573212 106 108 97 0.93420187354019901 14 7454 5 2749 7 6318
3270 0.87375452222234729 3.9171122244561296 0.96142976080393372 41 39 34 1.5625467906665937 2 2546 12 2729 17 4865
1067 -0.65310238337153859 3.2439166741062899 1.4946475615881969 161 155 149 0.44175655790443258 10 7375 5 4438 1 8030 13 3864
858 5.4141122979349303 -1.644111615021002 8.9341821757726763 94 103 76 0.23728363147235754 10 6047 5 2766
1226 3.3622161677574627 0.87549886941973309 5.51459463252636 54 62 41 1.4676719066807766 10 3132 5 5505 1 7329
859 1.0035029397694266 -1.4255568600046429 7.6310112159174679 87 97 73 0.43882900899876637 10 2937 14 2209 5 2771 7 2213
3624 -3.1101626332703223 5.2499841765043112 -1.4101708620159485 144 147 128 0.9230497799023164 12 6676 17 3446 21 2800
1737 -2.028464040587961 3.9405691037652977 0.43175531096538355 62 55 44 1.0015899714728711 1 2271 13 3023
862 1.4684011436039863 -1.1862297735772254 7.5295765003756934 128 138 114 0.38673580306661748 14 2676 5 2793 7 2907
1580 0.49054615981855243 4.0961318331089585 0.6075567574704458 68 74 47 1.4356381349056762 14 13164 5 8051 7 12529
863 2.9272005225378712 -1.142509102657473 7.8811340252698612 152 156 129 1.4847982891846494 14 2690 5 2798 7 6100
864 2.7055800120896092 -1.0453161253641643 7.7100189572871551 179 177 163 1.0817532834623778 14 7301 5 2806 7 6089
866 1.9794171974542421 -0.91481757630625948 7.4293701579779308 90 91 75 0.91548629843610996 14 2695 5 2813 7 2937
3741 0.29579516168876946 3.4230045959793327 1.4720047447761782 88 87 92 1.5528675742866431 12 3483 17 6414
1170 -1.3914044341296299 2.5232910194782256 1.8088703918740812 51 76 153 2.1303623514135683 10 3957 14 11285 5 5118
867 1.1675894159761357 -0.73858449776450452 6.9247691032789955 125 154 123 1.7220042088837417 14 2696 5 2820 7 6096
1687 -0.71345511855704347 4.0303791742670292 0.5203547445833635 129 161 147 1.1617795372381143 14 5704 7 4737
868 2.0861647656696123 -0.85746696332124872 7.5029920984087957 165 173 152 1.3152922884125784 14 7281 5 2823 7 2948
1681 -0.47300175225607644 0.93291323722121267 1.127467243587273 101 98 107 1.8627171113317456 5 199 7 853
870 1.3746775754293452 -0.71453764731245262 7.1012086240390042 155 168 148 1.1494928374996118 14 2703 5 2829 7 2943
871 4.1167588739789975 -0.57337794241233142 7.2986163848022025 108 126 85 0.653124029942724 10 4279 5 2830 1 2962
3222 0.79353403806366063 3.7073540309963215 1.2589335186171986 55 56 51 0.77677335325908925 11 1718 12 1378
872 -0.7621196315445129 1.1121602973531288 1.0207069706329461 148 116 105 1.3161251820657536 5 2844 1 173 13 83
874 2.603865561185486 0.08171789511754815 6.4390093103044004 96 113 75 1.0977786569763632 10 3065 14 7148 5 2875
1178 1.4865590917083551 2.8213718605498994 2.3862544329685393 126 154 116 1.2765774093034457 10 7011 14 11428 5 5150
875 2.9221379632402757 0.24158582313873553 6.2544420737730544 84 87 66 1.3798484853604307 10 3071 14 2787 5 2890
1695 8.8768796909997452 -2.5377548242275418 10.600953707951152 139 154 113 1.8372798548560247 10 95 1 100
876 1.9858063224682141 0.19580940889564324 6.2214772377394523 129 135 118 1.1595833604063239 14 2320 5 2892 7 2295
1689 -0.61711392438982993 1.6331366687685702 1.0070855646628791 71 56 51 2.799183017730297 14 10656 7 5851
878 1.4550487062198718 0.339494842400828 5.8994303529951351 152 154 137 1.5200313139240198 14 2788 5 2899 7 3035
879 -0.60737450788594183 1.4726774833123766 0.91149433045146455 69 56 48 2.2722815563779375 10 2925 5 2912 7 2980 1 7456
880 3.2469799990811876 0.81062280856664737 5.5051525711445786 86 106 81 1.0564690579221978 10 3126 5 2926 1 7318
882 1.1110053955724146 0.77525276750828709 5.2702139467034037 52 45 39 0.8712077222599417 14 2828 5 2942 7 5769
1250 1.1298910865206557 -0.30171300534421747 6.4535183149597364 175 160 164 0.36284118384266906 14 7073 5 5702 7 6008
883 1.2865305820352242 0.80141481109721857 5.2411979882569435 195 180 177 0.15667784822755618 14 2350 5 2943 7 2318
884 2.4364733413657986 1.0753617106156421 4.9907725751830059 156 168 132 1.5241854283862875 14 4006 5 2957 7 10638
1761 2.6910837391775129 -2.2694268171739722 9.2515650680201489 136 154 128 1.708737259140138 5 5990 10 6011 1 2878
886 2.4423782460632615 1.1114874422605543 5.0131276790092176 113 115 92 1.1411515420678151 10 11027 14 2851 5 2962 7 3118
887 3.0894966865778479 1.2454873851640194 4.8571993094236205 137 157 128 0.54699451798381638 10 2547 5 2969 1 2124
3302 -5.8312936424816151 6.6401493055475536 -3.6107599817253444 209 181 159 1.484479109103944 2 2747 12 3105 17 3204 21 2658
888 2.7633217927553893 1.1738269464880007 5.0271596552553284 0 0 0 1.2929739650004044 10 2912 14 2861
3819 0.064312174525317373 2.4545699229747937 2.775478784609859 154 182 203 2.0212414208475109 17 171 21 276 19 189 20 369
1258 2.8174345868206951 -0.8589155474355995 7.7830458259031268 158 160 147 0.49133487836401762 14 7263 5 5767 7 2966
891 -0.72964783210909157 1.6354130477080795 1.0813922947741956 126 110 111 1.7472980506750151 10 4184 14 2821 5 2980
1775 0.70815887486645057 3.7778836743035527 1.1140121389458157 212 183 187 0.4053973657180559 5 1859 1 4236 13 3931
892 1.8070317960721385 1.2039186347971726 4.7884567096777069 73 95 67 0.84413449998470769 14 2857 5 2981 7 2350
1769 -1.3955016234407225 4.1116961579922355 0.34417053511781698 42 48 25 1.2317198052438976 10 5266 1 3553 13 5925
894 1.7970265213733834 1.4726204607960365 4.4131858028857716 175 180 148 0.62849278273589448 14 6910 5 3003 7 5608
895 -0.74975246923274874 1.7636935102277385 1.0250020327106706 66 100 189 0.45721035970207219 14 7001 5 3006 7 5770
1558 -0.87126853237402213 3.9911191922872526 0.59337820599818902 190 194 169 1.0743439156580372 10 4755 14 13036 5 7854 7 12257
897 0.058720009532420452 1.7537876657437383 1.9946681156935415 91 93 80 0.01014646203037853 10 744 5 3014
1043 1.2474798121537256 -4.6755757147122754 10.960428358907544 177 180 149 0.30947735970928042 14 3982 5 4328 7 6746
898 0.60108729706096686 2.092482709489722 1.0804973562378799 82 76 80 2.3619878574112412 10 3839 5 3034 1 7588
899 0.54603290722373743 2.112267671907563 1.1901432326093755 210 172 165 0.85534060581353766 14 2906 5 3036 7 3156
902 1.7771368802903278 2.3120134978696609 3.3234276780024485 69 81 65 1.3073383459694747 14 2945 5 3064 7 5465
3095 0.65458039224440878 2.1056741546600946 3.1128804427694692 152 159 188 0.57036278679166863 11 4845 2 7341 12 9131
1556 -0.94556644703952597 3.9948771541320749 0.60795961524131514 167 176 151 1.0012357825727025 10 4784 5 7842 1 3844 13 11991
903 1.8168876854111446 2.3884266216064898 3.1272077844796899 66 68 51 0.63451392802246065 14 2449 5 3067 7 1397
1566 -0.31480345075422012 4.0627255477448614 0.58118041560991063 74 69 61 0.71581901945963189 10 7983 14 13153 5 7900 7 12411
905 1.7822616914645153 2.6568949597173228 2.47332177181916 38 37 35 1.3795144084404249 14 2474 5 3093 7 1000
1051 3.391989523318736 -5.043997700344061 12.125326233223953 162 168 140 0.39677822890516429 14 4005 5 4347 7 2117
906 1.3941398250568857 2.6742085318240525 2.6470536103342264 147 146 151 0.11674966390512781 14 11360 5 3096
907 1.2239225470080639 2.6774532001350524 2.6947712958116088 87 100 86 1.0085258509912611 10 11668 14 6701 5 3099 7 5392
3608 0.16217818555167657 3.8655401614788145 0.89704272012720665 21 26 16 2.2399951395701936 12 2722 17 3008 21 1227 19 3655
910 1.4187978493060016 2.7745796616385983 2.4626588783580137 88 105 71 1.1876166497694967 10 4027 14 2985 5 3109 7 3256
1564 0.84865153568251528 3.8323595378484741 1.0782089373613988 158 181 153 1.0431061165145741 14 6037 5 7886 7 4855
911 1.2453022520479526 2.9086264104281239 2.3564634339660642 185 174 170 0.81476061824814072 14 1638 5 3123 7 2461
1638 4.2945052189788822 -6.3395965234155041 13.753662954093098 115 125 100 1.329860199867102 5 2450 14 4024 7 2605
913 -1.1081584765128969 2.661892619118472 1.6530082441095555 78 104 189 2.2427047751913793 14 6696 1 7877
1123 3.4961965571204598 -2.2484226699074688 9.3454655317463224 93 103 78 0.80537263131254411 14 7427 5 4837 7 2864
914 -1.4406427928312908 2.6466260740353365 2.0002997957776696 48 56 55 2.0093927087106445 10 1090 14 11358 5 3138
915 -0.31739864310460369 2.819446106074706 1.4295972237676549 89 92 83 1.6454123452494416 10 11958 7 11198 1 1271
917 1.1307068344185736 3.0629763959464467 1.9624107705572669 144 162 130 1.2898035468800204 14 848 7 642
918 -1.2583983755665227 2.8122285843300587 1.7681910539444079 78 109 104 1.712747269331987 14 2993 5 3163 7 11163
1636 0.72871566464749704 2.2046097468915127 1.266932700492587 218 195 181 0.27663902875777313 5 1108 7 2388
919 1.1605445248452055 3.1903694937221623 2.0113123549967331 84 86 81 1.2796559561726761 10 3965 5 3164 1 7793
1646 -1.1238677129159607 3.6090742642340499 1.0304408695431715 78 78 66 1.3167523986681295 14 6154 7 5017
921 1.5085618834385006 3.2717190451677229 1.7845164038369312 191 188 169 1.2029883087662714 10 7120 14 6439 5 3183 7 5130
1131 1.403372029719735 3.4573489210502499 1.7196418938047089 39 32 26 1.0007696531122932 14 6328 5 4899 7 5050
922 1.307040097823817 3.2969663670345484 1.9677608843716998 69 89 61 0.32319478492436959 5 3193 1 1652
923 -1.2769144943036956 2.9232687229318097 1.6988136784492653 86 89 70 1.9613592485492639 10 1756 5 3201 1 4220
3688 -6.278051491142314 6.638303892325065 -3.6215440827588385 112 106 82 0.61342993995116957 12 11375 17 5227
925 1.4089840930910422 3.4233486231212429 1.7366684302883992 54 53 49 1.3404993409771628 10 7175 14 3117 5 3219 7 3396
3682 -7.3177839395245305 5.716703158620656 -2.6899941435783412 132 118 92 1.64915597611152 12 6346 17 5184 21 6339 19 6264
926 1.2110751185205713 3.4202717000848417 1.7203385057110181 72 73 68 0.81891898375186445 10 4332 14 3116 5 3223
1644 0.46283686639073529 5.8132436143431292 3.1626961546563011 22 30 15 2.3001342362301838 5 7406 7 4198
927 1.2226290259907329 3.4319251801165738 1.7040642723975341 150 172 151 1.3142178477270665 14 6342 5 3225 7 5065
1075 2.8273690622499288 -0.85666876021524396 7.6827880542926916 131 123 118 0.073498110371329028 10 4281 14 7268 7 6040
930 -0.77109000423979668 3.2046359446129817 1.5787865851115623 41 43 40 1.5867649385290121 10 1782 14 3076 5 3238
1234 1.6389294290224561 0.34142113377154287 5.9560812370969387 157 171 154 0.74068857227839313 14 7117 5 5576 7 5847
931 1.2263714689934961 3.5104089647434518 1.6000409410861285 114 123 104 0.83891881517330147 14 3144 5 3239 7 3418
1745 9.3408299876386138 -2.8050386863282251 11.308342180354797 97 120 74 1.0499648146068095 10 2340 1 2358 13 2146
934 -0.15479851705104689 3.3748404330243797 1.4644588682758792 72 72 62 1.0574912726424144 10 1781 14 6349 5 3265
3127 -4.0297480902355014 9.1558767191103758 -6.9737825630971679 107 111 91 1.3460282538555974 11 5995 2 8402 12 6106
1588 -0.14231876925569983 3.9207779739939421 0.78019786165805971 132 177 118 1.5040744306230085 10 13119 14 5873 7 3535
935 0.17132219211206684 3.4341068541971502 1.4734853066367437 87 83 82 0.67530135711158545 10 3855 14 6313 5 3267
3286 -6.4741587974712367 7.4455443354031674 -4.9453068764341621 75 62 56 1.165138631644578 2 3384 12 3033 17 3113 21 6400
1083 0.23458837118868173 4.1953081194573434 0.37661964270648407 157 190 155 0.67993580995788783 14 5508 5 4504 7 4495
938 0.87311970983476694 3.6500233622358782 1.3960057301078195 55 49 49 0.79581848474772421 10 3853 14 3184 5 3306 7 3459 1 4274
1242 1.030327530285682 0.035362118875137162 5.9895014188422966 84 86 72 1.4766900020388736 14 10403 5 5650 7 7773
939 -0.28656594382586681 3.5075863398538889 1.1664216822636753 82 89 71 1.6171414462372491 5 3332 7 5045
3640 -0.60285964616069243 1.3355916759424253 1.8811081921570794 76 102 186 1.1723390103946449 12 6973 21 2912
1753 6.1891159394359017 -4.8523803846057598 12.83262390075223 98 97 68 0.88291704762473611 5 6278 10 2273 1 2689
942 0.031130063544133686 3.6187484756453574 1.2765408512411591 89 81 79 0.46006363241510245 14 3188 5 3347 7 3439
1596 0.079655792874562759 3.8369393253712119 0.7961640560443195 84 116 69 0.27210497606951489 14 5973 5 8313 7 12105
943 -1.2448036672781475 3.4180211436028856 1.2285740796421363 176 177 169 0.55991416977665331 10 3742 14 6290 5 3350
1542 0.65290263336526499 4.2659053469767638 0.29109741623849333 159 195 155 2.351060852299192 14 13746 5 7729 7 12933
945 0.32069585069767986 3.7190013572291245 1.201452331294518 57 48 41 1.0698847298479792 10 3797 14 3211 5 3363 7 1672
1027 -1.895810038545227 -4.1436238836831567 9.6238348822119644 135 137 126 0.34496762581224227 14 1244 7 969
946 -1.1329758179452978 3.4995236604426792 1.0613357559901779 176 175 157 0.83915564529672537 14 6233 5 3373 7 5070
947 0.92703751942574619 3.85967272102409 1.1032073110343723 91 83 72 1.1852791650218368 14 3244 5 3375 7 4843
949 -0.87521716846334308 3.5691311544198943 1.049682006552028 176 172 161 1.3171438186016295 14 6186 5 3380 7 5030
950 -0.22334427619786099 3.7075099342694622 0.97113282615602436 61 68 52 0.89724209063544447 14 3220 5 3403 7 4955
3079 -0.19927240422348852 2.6858768553839178 2.3646219823543095 33 41 34 0.4136070714640836 11 13438 2 6695 12 4665
1540 -1.6793340467215832 3.9400590698026718 0.57015970769089919 52 44 39 0.87389210130499229 5 7710 1 5667
951 0.61367499940867576 3.8876104249284729 1.0555423228903809 83 83 71 1.5208771931019609 14 5991 5 3409 7 12136
1550 -0.26560510707115154 4.094316155850799 0.4677220919302949 151 151 139 1.8782667581804926 14 13286 5 7807 7 4649
953 -1.5104230445873423 3.5651101081947765 1.1203467310921011 97 98 85 0.99516952681646376 5 3416 13 5393
1035 -1.881437518393495 -4.5715686570001219 10.034151104926378 101 96 92 0.70600033134311868 14 1621 5 4294 7 2555
954 -0.057012123303392656 3.7762117351154254 0.93314009830040434 151 177 135 0.19892070946450283 10 3739 14 1795 5 3420
955 0.20645839304686051 3.8727942439693162 0.87351377849996337 137 175 118 1.6283017073250878 14 3273 5 3450 7 4838
3592 -3.3101193141277263 5.9131798289294064 -2.4030744382085665 191 182 141 0.083492388159502523 17 2772 21 1902
957 -0.31073437189354625 3.8119674666351915 0.88820156217006596 123 148 119 0.86152557469647506 14 3251 5 3461 7 3497
958 0.39605356700547534 3.9468340743566359 0.86403375111608627 33 49 30 0.82426681716943939 14 3300 5 3472 7 1729
1548 -1.6282155371159712 3.889915809316054 0.60271611550469339 79 69 53 1.7328671461655603 10 4951 5 7802 1 3418
959 0.50141818527252513 3.9804668585263356 0.84269520508178808 144 166 154 0.93656138577442838 10 3726 14 3317 5 3481 7 3573
1622 -0.068242838876286682 2.5466966080965654 1.0123893844186096 187 160 167 0.5798218732645124 10 7034 5 3106
961 -0.83512590153243949 3.7702160353050838 0.85299654223327614 54 52 49 0.89153846967501649 14 6018 5 3487 7 11963
2343 5.8479315612444704 5.0164772271973108 -0.012005268316038422 152 146 136 0.3710246644282274 4 2656 9 2631 8 2581
1107 -0.67706285126907073 3.375856986050751 1.3541392112090744 175 175 160 0.8678772975290584 14 6326 5 4715 7 5133
962 -1.1247396042782916 3.7349982078310298 0.90573428624190899 61 58 53 1.3870024277723869 14 6053 5 3489 7 4974
963 -0.79023309272528042 3.7899389568830402 0.81185063935405377 49 41 30 1.3436765365738816 14 5997 5 3509 7 11991
965 -0.84500779210549859 3.8136980178959674 0.84929826143024933 57 56 52 0.48028555742735124 10 3557 14 3262 5 3519
966 -0.92613059905177764 3.7924785436888713 0.79303275872629597 49 48 47 1.804506759826322 10 3489 14 3257 5 3527
2340 6.8246602499626539 5.7100043142063006 -1.0461833092357486 180 183 154 1.1392672318390042 4 1595 9 2561 8 2493
3159 0.25754459697473436 2.6782915111012868 2.5211742000211856 0 0 0 0.049803672432507606 3 1230 16 894
1317 -1.1231142761315207 -2.0681089746611256 7.5738035936530999 130 129 98 1.1562790055012107 14 7558 5 6061 7 9128
967 -0.98950847144798226 3.7821477534777448 0.74383085533917059 156 172 143 0.91177320078110491 14 3261 5 3534 7 4928
1630 -0.59985298130183118 1.697711795127564 1.1943234881280285 97 80 86 2.1194820609693323 5 2532 7 913
969 0.023433004887903817 3.9881132558819128 0.71217842601519388 10 7 0 0.50980236251082844 14 3334 5 3542 7 4752
1115 -1.1661359960929205 3.2112811879516427 1.5190848714826137 148 166 147 1.1518149029583129 10 7433 14 11821 5 4795 7 11440
970 -0.54580676611447243 3.8784208824989546 0.62353293713379232 166 169 142 0.52387531226548933 10 4540 5 3554
2344 4.8516789295495268 5.3170756986858674 -0.69741244421077397 167 169 145 1.1359759216630589 4 3308 9 2652 8 3125
971 -0.089764355552672023 3.9975203437532216 0.70182697450077203 53 56 48 0.18713753832355592 10 4483 14 2019 5 3565
3369 -5.3569003438339884 7.2703418456299005 -4.5186911605508184 71 70 49 0.86328077393565616 2 3422 12 6266 17 5209
3672 0.7455058297486018 3.0099072802636946 2.0274742227312537 174 186 164 0.95991723657532724 12 7338 17 5004 21 10129 19 6901 20 8161
973 -0.83849383075963835 3.9328160745108707 0.67676748816644139 78 64 59 1.3945635978585902 14 3324 5 3601 7 3531
3666 0.26359643919671533 3.8681120306936467 0.94338224621520061 33 35 32 1.6048452367711823 12 3452 17 4901 21 3049 19 4242
6444 -0.77361562188923272 3.51082586066337 1.2588872337813204 160 156 152 0.87964065283505455 22 2792 24 6067 23 6839
974 -0.51863216784091004 3.9488758650165319 0.53923603126835262 168 198 154 0.70898596663314539 14 3342 5 3603 7 3562
1628 1.138389377189523 0.78582993512686572 5.1570958515668801 100 95 89 1.3978760101924192 5 267 14 250 7 357
1325 -0.0058618320701995102 -2.4119674006450733 8.2965762669398302 154 160 134 0.22297456703883625 14 9626 5 6095 7 6465
975 0.22388057367149367 4.1125950467753318 0.52385619336421907 153 187 111 0.84297523795631246 14 3402 5 3616 7 4620
1702 0.40699244774928861 1.9811226318882522 1.894243645093314 106 109 92 0.19917991188167145 10 6835 1 369
977 -0.52093463257970007 4.0066092264696582 0.5445661214015397 140 183 129 0.9516198405156413 10 3600 14 3368 5 3632 7 4744
2359 5.5104399125302219 5.2811312997220048 -0.61206522179027456 165 172 139 0.91884779180083276 4 3272 9 3165 8 7265
6448 -0.4980245540970013 3.5289444490627031 0.98167032155741563 72 74 63 1.1684244279004166 22 2793 24 6103 23 6817
1187 1.9163439241518592 2.6644647089473903 2.5378330548975723 183 182 187 0.68914810401979709 10 11605 14 6704 5 5188
978 -0.10251641908668502 4.1043885820805501 0.55610285319947017 42 37 31 0.36225973862520161 14 3397 5 3642 7 3611
979 -1.1059982754748738 3.9498429740875562 0.60101208122035388 44 43 33 0.64122720324109472 14 5792 5 3646
982 -0.95183762593649157 4.0045239906439996 0.59000211997550089 68 69 61 1.1317605501617041 10 2206 14 5742 5 3658 7 12267
2356 6.1184060522873187 5.8679881439022541 -1.2340776663084381 108 108 90 0.90219044537453497 4 3245 9 3110 8 2523
3239 -4.646403728734577 7.8294270155557655 -5.2894507366756738 146 159 126 0.46776643405333118 2 1037 12 1571 17 974
1700 4.5653790905505147 0.12238067208428349 6.4761859242364102 107 123 86 1.246786024249332 10 286 1 332 13 406
1333 3.6995852815660593 -3.0765632751895815 10.174213216133808 99 121 82 0.78915916978521061 14 7537 5 6114 7 2791
983 0.11232547713394103 4.1890133690500386 0.51064035232292715 166 149 141 0.90320324641984817 14 5564 5 3666 7 4562
6463 -0.29775877790020411 3.7778976711379917 0.85278273920843062 150 165 136 1.3379247171425888 22 9371 24 6229 23 6706
1710 -1.4040338177133185 2.246380655283045 2.5782801743427624 88 86 82 2.4335184118377313 10 529 13 242
985 0.35547734242129442 4.2961987171743941 0.358049190910112 59 56 39 0.75484994937567851 14 3508 5 3732 7 3704
1195 2.1468173738316456 2.3416409990056191 3.1556119475316984 201 205 177 1.1731041714829082 14 6772 5 5248 7 3210
986 -1.1340879110042383 4.0488374140599248 0.45524180852981988 52 47 28 0.55552376963624694 10 3288 14 5655 5 3733
2360 6.0161119436073349 5.179934126867602 -0.19954178845080961 183 179 150 1.4941348323355221 4 3264 9 3169 8 7299
987 -0.14067672986796403 4.2219909130150137 0.37857181105094884 147 157 130 0.41751012915859986 14 5478 5 3743 7 4509
3385 -1.0786058102532028 5.7586833239635125 -1.8507032132053856 83 79 66 0.83851043777098855 2 5875 12 6724 17 3529
3752 0.70380068131781959 3.1242392087563915 1.8784135611905513 166 158 155 0.041745825210663681 17 6635 21 3209
989 -1.3067869974885247 4.0297966827448697 0.46120312160784566 163 169 133 0.95946017674091877 10 5033 14 3394 5 3749
2355 6.1001075883450318 5.7333864389650229 -1.1362426250879349 121 122 104 2.3036678716296706 4 6566 9 3104 8 2521
3746 0.83291609582355075 3.7630759532043969 1.2324956876928108 55 35 44 1.114584824549953 12 7122 17 6470 21 5191
990 -0.43123693095237103 4.1762373605025989 0.36484183162883044 139 130 113 0.26949194137190913 10 3194 14 5510 5 3756
1708 1.4867764415396678 3.1602819094441421 1.9468438028965649 62 64 61 1.7393476131292951 10 536 1 490 13 454
1341 3.293419740869667 -3.2197573803281854 10.272544239863224 148 160 140 0.39824636547788644 14 7554 5 6134 7 6416
991 -1.3219659455067307 4.0508169839522594 0.45715585592377955 174 185 145 1.0063589217771367 10 5076 5 3767 1 5556 13 5749
1654 2.3945362520635896 -5.7843889508330859 12.605116231787733 174 167 148 0.20906420117119073 5 6491 14 4223 7 6812
993 0.21598675950848545 4.3103941245238673 0.30653133470981808 54 54 36 2.0571360635660145 10 8206 14 13844 5 3781
1139 -1.1941109301022694 2.9552217855771294 1.7461716132335314 0 0 0 0.027256591263463213 10 7297 14 11564
994 0.1548825455477911 4.3397655740056651 0.30979340451014942 163 161 148 1.0719820205656549 10 4798 14 3539 5 3805
995 0.54134681224416936 4.3849646786523859 0.22358541107953486 132 152 117 1.7650206036015132 14 14080 5 3813 7 13186
997 0.31420340816469128 4.3895897815237195 0.2235905746414992 142 142 125 1.3845746178768454 14 5216 5 3847 7 13148
998 0.26324845505481809 4.3873768918422931 0.22647728841686504 65 56 47 0.51496694420783773 14 5217 5 3852 7 4268
3191 -5.1243463619100922 7.8128694563140133 -5.3857801419541094 104 108 85 0.79892641437861711 2 1033 12 470 17 662
1652 -0.032729098001924556 1.4435795737407806 1.8234318353815711 143 178 235 1.5724484857663601 5 2951 14 7064 7 5831
999 0.31433154828653759 4.4139798955930152 0.22019238513577943 31 31 13 0.47299105720812351 14 3590 5 3865 7 4226
1662 0.35704191515171646 -3.1855648579572349 9.221587634294238 144 154 129 1.5446815383874357 5 2637 14 9446 7 8917
1001 -0.38703527191389403 4.3006767122981735 0.25112427415431304 47 47 35 0.52229494657812647 10 3311 14 3537 5 3876 7 4395
1147 -1.2184434124388897 2.846221563314753 1.699429922047148 150 185 145 0.40474571745207649 10 7251 14 3875 5 5010 7 2434 1 7961 13 4816
1002 -0.48068855818802547 4.2644385444942872 0.1996058974131375 157 178 147 0.89150579602915847 14 5326 5 3884 7 3686
1003 -0.024648040513725076 4.375249192964926 0.23558269204512089 81 71 69 0.24659199432953058 14 2276 5 3886 7 1858
3704 -3.6552817702683456 5.9179160627933998 -2.2732294272888618 191 170 149 1.1120264699705553 12 11868 17 5568 21 5964
1005 -1.1439963463601184 4.1964729580947431 0.22212484775888625 186 170 147 1.0936683650884866 10 9354 14 5398 5 3928
3698 -3.7601105115302005 5.525006267545697 -2.1647699575288541 117 105 92 0.15487992178455301 12 6528 21 2734
1006 -1.0160058079075898 4.2603801958987662 0.24628999259071277 62 55 49 2.0497436350342912 10 5309 14 3528 5 3943
1660 3.2016215907232581 -5.1093630827217726 12.173674596561078 159 157 142 0.44123513039167589 14 9211 7 8713 10 10132
1007 -0.92246892065147068 4.283775835500677 0.17331677508543009 44 43 22 0.6999802425412992 10 2083 5 3975
1606 0.59266339505548016 3.8860037985468097 0.97522304001598847 175 173 158 1.1431305091571458 10 7517 14 5982 5 8394 7 4829
